ply
		format ascii 1.0
		element vertex 8969
		property float x
		property float y
		property float z
		property uchar blue
		property uchar green
		property uchar red
		end_header
340.123129 2181.931305 2711.213303 143 141 141
504.395533 109.665203 4033.723068 55 59 59
532.052422 2298.925781 3504.486465 165 158 151
532.052422 2298.925781 3504.486465 165 158 151
508.442497 -45.476985 4096.854782 78 105 108
483.852959 2401.707649 3253.783417 154 140 133
433.134127 -500.480604 3879.884720 142 135 128
497.886467 2393.226242 3298.147964 87 69 58
510.952759 41.893047 4043.391037 24 35 35
555.027390 405.540752 4123.664474 156 160 159
510.396671 2292.572975 3368.669128 57 49 44
440.495157 -525.467730 3885.249710 90 81 74
407.956886 2291.904640 2897.914124 119 118 110
507.427740 2349.810410 3307.817078 154 140 131
661.176395 1066.157150 4337.028503 37 41 40
567.421198 132.359314 4202.505112 79 102 110
660.903263 1098.767853 4321.704483 152 153 153
623.427105 684.186363 4254.511642 160 165 163
517.737532 2308.563042 3321.114731 145 134 129
672.429562 1076.091480 4329.980850 107 106 104
416.965485 2279.954338 2893.955421 129 131 130
625.683212 1182.000160 4084.272766 83 74 66
625.683212 1182.000160 4084.272766 83 74 66
629.373503 618.201399 4260.190964 47 56 59
612.758303 1668.752670 3877.758026 85 84 84
606.440401 1067.071915 4012.913895 160 152 146
578.714705 1980.422401 3632.125092 134 129 127
597.773933 1883.171272 3737.486649 121 112 103
646.931314 1265.185356 4119.353485 118 113 105
638.765526 698.054504 4243.554306 146 154 154
657.978106 993.710899 4203.992081 146 146 143
484.104681 2353.513908 3086.766624 114 107 100
648.455906 1217.672443 4083.362961 53 63 66
518.825054 2316.655540 3229.528046 176 166 155
546.960211 2289.834213 3343.396378 60 54 50
476.652145 -322.054744 3774.021530 147 138 129
650.484371 799.103546 4165.776062 164 167 163
564.889336 45.542869 4026.080322 69 78 76
548.412561 2301.723289 3308.808136 133 122 113
522.472239 2332.188797 3185.897255 87 71 59
616.595030 1579.586220 3769.414520 175 169 164
616.600561 1639.015579 3743.008041 170 172 173
648.655987 1054.167652 4011.824417 88 84 80
580.864286 155.815279 3985.171127 46 55 59
529.071999 2282.757187 3189.315987 104 88 79
578.510094 2217.292976 3397.484589 107 103 102
629.647827 387.095809 4103.252792 138 142 140
629.647827 387.095809 4103.252792 138 142 140
545.357180 2304.161835 3237.058258 158 141 128
674.500465 779.873562 4163.994217 77 90 95
634.037352 394.403863 4085.282516 67 74 73
694.071150 676.727057 4221.180725 95 101 100
592.490435 68.315673 3984.988785 67 83 85
645.557547 1613.537025 3767.607117 61 58 53
558.659124 2227.530098 3254.906082 71 60 57
666.901684 577.040482 4124.910355 131 144 147
596.208525 101.375759 3969.815826 87 102 108
601.009083 2112.840652 3441.162491 165 160 155
670.692492 1150.208473 3965.438080 40 47 49
699.100828 739.996910 4180.803680 168 170 169
700.139523 740.208054 4184.180069 168 170 169
656.274748 1105.974197 3909.658051 83 87 86
705.041218 935.362244 4142.094421 56 53 48
680.270290 550.903702 4137.253571 109 119 116
532.622719 2343.444252 3077.159119 117 111 100
556.438303 2182.671547 3203.430176 173 165 161
536.752939 -475.673485 3830.878067 165 157 150
671.988058 1083.655548 3932.300186 161 154 146
679.690981 1143.497562 3937.291336 146 142 133
550.342226 2265.256691 3134.708786 79 64 57
629.760456 1855.818367 3544.275284 110 108 107
667.772913 1395.141697 3811.289597 108 99 95
667.772913 1395.141697 3811.289597 108 99 95
582.477093 2179.364777 3264.088058 163 162 162
720.415115 769.226789 4153.209686 163 163 163
702.515411 978.860664 4018.759537 172 171 165
643.747425 1617.076302 3626.749039 178 170 161
679.101753 386.605334 4077.696609 49 47 46
664.086723 1442.287636 3740.761948 179 173 167
603.329945 2163.736534 3316.582489 187 184 179
566.483974 2247.787476 3145.553017 161 148 138
654.927969 1557.171535 3655.596924 68 62 56
719.192791 946.373749 4042.255783 166 169 167
719.016361 912.064171 4049.989319 159 161 161
712.742281 1002.401829 4000.291061 167 166 165
586.476994 2208.417320 3200.553131 130 117 105
561.927748 2227.761078 3095.915794 108 94 83
690.040255 1236.279392 3824.554825 95 88 82
665.279341 282.589793 3975.598907 122 126 124
713.006496 1003.252411 3964.722061 104 101 99
603.560114 2166.559792 3251.167679 98 92 85
629.488945 173.677623 3860.228729 117 125 125
581.431723 2242.943382 3136.706924 158 145 134
763.875437 990.126801 4120.675659 147 150 148
741.629601 916.187382 4047.899628 165 169 168
754.457855 790.727758 4125.988770 63 69 69
754.457855 790.727758 4125.988770 63 69 69
454.945993 2185.833359 2670.816231 171 167 164
762.499714 849.044037 4139.092636 151 153 154
752.296495 848.007488 4095.936584 62 70 73
755.159616 861.225891 4070.484924 162 164 162
755.159616 861.225891 4070.484924 162 164 162
664.419889 92.217278 3935.370255 24 29 29
762.998486 838.060570 4096.526718 152 154 155
625.021696 2156.656456 3252.795029 181 178 180
691.983604 234.982133 3966.545868 93 100 97
694.305277 281.027246 3956.879044 110 114 112
739.795876 704.112864 4001.855850 152 157 160
573.865318 -160.641336 3625.064087 199 198 196
697.553635 334.829688 3941.039658 127 128 126
681.968880 90.443659 3939.644623 73 81 80
477.418709 2202.690125 2664.701080 115 114 114
685.520697 105.377007 3912.870789 21 27 28
597.454405 -297.543240 3694.930649 205 200 196
599.412346 2200.140762 3072.768974 164 162 151
738.079643 474.851465 3986.088562 92 96 97
741.918707 510.404730 3990.312195 142 146 147
692.576504 164.697528 3892.236328 30 38 39
603.003550 -112.996995 3624.138641 76 87 87
603.003550 -112.996995 3624.138641 76 87 87
773.325586 818.042850 3962.759399 144 148 146
606.499004 -127.583289 3604.938889 57 65 70
761.335611 1187.469959 3814.125824 75 69 66
589.194393 2191.088295 2965.922356 102 94 85
736.100769 360.656500 3901.858139 133 134 130
610.166502 -136.381817 3591.351700 136 157 168
656.822491 2115.638161 3202.627182 98 90 86
782.561827 868.732262 3929.176331 151 155 156
641.009474 -488.807487 3767.383194 96 94 94
737.782764 372.004795 3886.954117 33 36 33
756.399775 1211.941433 3747.173309 186 179 171
756.399775 1211.941433 3747.173309 186 179 171
638.172054 2071.134758 3134.470177 106 101 100
629.278660 -285.718822 3663.897324 142 132 124
757.601500 1224.225140 3727.139282 97 89 84
647.428226 -516.427946 3765.608215 51 49 45
619.119978 2090.884972 3040.336800 65 58 54
728.539467 158.342993 3868.649292 40 41 43
660.324764 2064.467621 3180.251694 171 166 164
637.944889 -293.722701 3657.611465 182 177 172
728.035212 1454.844570 3527.402878 171 174 173
816.087914 704.533005 3983.661652 64 64 60
734.475994 248.584223 3819.913864 60 67 65
526.514149 2187.331009 2641.640282 96 98 97
653.816366 109.289873 3546.798325 35 63 77
777.658224 1071.233559 3724.746704 60 83 90
670.614386 2080.262184 3132.505226 145 132 122
785.116196 1021.937561 3751.403427 98 114 121
819.529915 751.196289 3919.729996 45 46 46
617.921543 2129.780197 2932.817459 88 89 85
672.981548 -285.542178 3644.028091 170 163 160
672.981548 -285.542178 3644.028091 170 163 160
758.117580 243.580914 3795.159149 103 108 103
758.117580 243.580914 3795.159149 103 108 103
839.517212 797.851229 3908.557892 49 43 37
786.667347 1202.661037 3634.289551 85 86 88
847.366047 762.212086 3924.835587 113 109 102
778.207445 210.714746 3818.907928 25 29 28
624.270201 2099.014091 2888.282967 95 88 85
835.965729 1033.415699 3797.341919 72 71 69
822.061539 711.003160 3824.031067 158 153 151
684.262133 2008.287239 3090.696335 169 162 156
720.362806 1704.006958 3271.236420 180 178 175
724.262667 1685.691833 3287.022781 181 179 176
753.211403 1398.865223 3435.712051 174 176 174
625.492525 2118.900490 2867.161751 159 152 144
737.778521 1564.809418 3340.554428 182 183 180
819.232368 844.167137 3755.284882 116 104 96
818.537712 878.048992 3743.188095 148 136 123
779.657221 1303.480625 3508.063126 169 168 166
697.489452 -170.781851 3580.547714 131 149 176
618.450403 511.609697 3175.955772 107 106 106
620.898485 535.074425 3175.951195 103 103 103
620.898485 535.074425 3175.951195 103 103 103
838.449574 696.741724 3809.907150 120 114 109
824.671173 828.472805 3736.411667 63 57 54
784.357738 940.820122 3570.458984 56 57 56
637.281036 499.156857 3204.473877 31 30 29
794.114351 926.221561 3588.993835 141 129 117
848.039150 723.568773 3799.089813 135 130 122
851.547527 709.556913 3810.201263 74 72 69
851.547527 709.556913 3810.201263 74 72 69
706.063557 -107.025278 3526.761627 83 88 111
636.605263 526.166248 3171.078682 77 71 67
820.082951 198.257697 3796.300507 23 27 26
644.817257 455.805111 3201.263046 25 26 23
720.677137 1988.446236 3087.110329 171 168 167
859.379959 699.004221 3788.578415 55 54 53
696.936369 2119.417572 2965.430450 78 68 58
724.918222 -152.088284 3545.077515 204 204 204
649.651527 520.908880 3165.238380 129 124 120
870.197678 735.571098 3773.253250 117 110 103
720.038509 -36.605820 3486.876678 124 126 123
755.860376 132.634985 3552.544403 34 34 37
792.401171 1486.815071 3359.043121 180 180 181
776.855516 834.571934 3446.110916 176 172 165
880.329418 762.393713 3768.422699 46 43 40
832.272625 380.756545 3704.398346 32 35 32
832.272625 380.756545 3704.398346 32 35 32
831.312370 196.863079 3726.253891 83 108 120
831.312370 196.863079 3726.253891 83 108 120
747.927475 -117.036605 3522.268295 195 199 198
747.927475 -117.036605 3522.268295 195 199 198
820.987892 1376.859379 3410.365677 157 160 164
745.554495 -45.148239 3481.363678 163 172 173
668.561220 538.952208 3122.263145 37 40 39
896.107197 786.046219 3730.125427 55 50 45
830.538559 1402.758884 3400.041199 86 81 79
696.529818 419.133139 3213.635254 111 148 152
758.434772 -82.550299 3491.865921 118 127 135
863.653183 999.193192 3553.347778 35 45 47
848.058128 1138.768673 3466.035461 103 97 93
847.650146 1106.300068 3470.732498 106 98 89
866.964531 339.272523 3687.339783 21 21 19
711.274958 2030.651855 2879.190254 105 91 84
842.981052 1243.295670 3422.579956 114 108 103
832.244682 425.157356 3559.726334 30 24 28
818.584538 1454.542637 3298.398209 119 106 97
647.861195 2144.276428 2658.580971 184 179 171
796.145535 1540.145206 3205.887222 96 84 75
691.739416 528.199053 3120.717430 173 172 171
879.243755 311.432910 3697.562408 19 17 17
683.530474 2013.026047 2767.636490 163 164 164
861.230850 1060.012913 3450.204468 155 145 136
689.776373 579.888296 3065.633011 161 160 160
701.894426 605.876303 3078.610039 48 61 67
894.991302 330.532074 3673.788071 24 25 22
672.585487 2002.389908 2702.692413 168 166 165
865.951633 1098.400211 3424.512863 153 149 141
823.430920 -386.654997 3613.514328 159 145 135
692.019272 1975.196457 2753.151321 103 88 76
807.371235 -116.402304 3498.376465 122 112 107
763.358974 1932.008362 2952.755165 165 161 156
860.891247 1145.147133 3379.312134 156 153 148
669.305038 2101.000214 2651.271629 152 145 144
877.703953 889.533043 3464.564514 63 76 80
728.057003 1945.979691 2814.697647 156 135 123
777.882671 1888.414192 2959.642792 84 75 69
846.068668 350.117660 3458.923340 72 71 71
852.224541 1347.635555 3264.988708 79 80 81
817.224503 1600.045776 3116.081619 92 85 77
824.634075 1576.072884 3139.114571 87 84 80
733.921862 1948.216438 2803.534317 85 75 68
737.079668 1945.144081 2800.380325 86 81 75
782.845783 1883.804893 2935.202026 158 154 148
711.895037 568.879128 3008.440971 184 189 188
830.692005 1523.900318 3135.443306 160 157 150
924.220657 423.421907 3602.706528 80 71 64
768.845892 455.915213 3175.684166 150 171 176
718.717957 593.975496 2977.435303 94 103 102
857.209969 1172.568321 3225.952911 96 93 90
790.188217 1733.319092 2923.189163 110 118 120
735.039425 711.457109 2966.400337 184 187 184
878.623199 1066.768074 3272.430420 150 146 139
832.508564 1458.642387 3072.166252 114 118 123
770.182371 1889.857864 2819.289970 117 108 107
750.253248 822.407532 2968.018913 50 53 54
789.382410 1882.198143 2858.260727 141 137 136
768.079710 871.061707 2993.136215 121 109 95
846.629238 308.967352 3306.349564 118 126 125
741.226912 777.381706 2934.848595 82 91 94
776.759815 1943.165398 2781.285858 165 161 153
766.319561 861.624813 2963.256454 56 51 48
755.280590 707.104683 2957.632828 166 165 164
796.580791 1889.430046 2832.069016 180 175 174
783.578444 870.710564 2962.263489 51 52 52
783.578444 870.710564 2962.263489 51 52 52
713.506794 1777.820778 2603.077888 150 147 147
717.254639 1913.426208 2570.036888 161 159 158
728.788328 1732.622147 2625.405693 144 144 146
838.919353 469.984579 3135.614586 172 177 178
804.453373 956.744957 2953.946304 114 113 111
894.370270 108.614600 3336.219025 218 216 215
818.532181 994.490337 2974.257851 71 64 61
789.190626 867.999268 2920.232391 119 114 111
717.775917 1833.594322 2555.418205 79 74 62
797.742987 766.730452 2945.343018 150 150 150
797.861052 887.204552 2919.743156 32 34 33
794.850159 857.886600 2915.910721 63 55 50
753.843355 1564.564228 2681.183815 99 89 80
764.895344 1504.087734 2712.288666 104 95 86
887.492752 254.075336 3238.219070 202 200 200
832.989979 561.229992 3046.443939 166 175 175
802.629375 848.096466 2911.934280 127 123 121
807.725811 882.680607 2915.172577 103 98 90
811.414051 755.215549 2943.266487 45 44 39
809.625435 769.465256 2935.749817 154 150 146
861.061954 488.310194 3103.144646 161 166 166
822.362995 844.286919 2923.733711 50 50 49
821.437740 773.277903 2926.867294 75 69 65
951.622391 -73.330367 3394.575882 228 220 212
827.197933 767.573500 2921.129608 145 142 138
833.572960 940.269566 2897.681808 66 70 69
910.894966 371.895933 3182.299995 97 87 79
880.254745 494.096613 3081.202316 155 165 163
879.622364 482.552958 3081.623077 144 155 154
835.122013 807.530499 2914.391327 35 38 41
835.122013 807.530499 2914.391327 35 38 41
946.518517 86.451316 3301.291275 186 182 180
852.862835 974.220181 2900.118828 168 163 160
873.024750 547.180939 3024.131775 161 174 175
852.740192 840.278339 2907.027245 48 46 42
935.975170 292.480326 3198.420525 130 125 125
947.839260 222.119665 3224.531937 180 178 178
763.166523 1754.340363 2517.230034 115 113 112
985.185242 -128.719878 3371.562576 140 122 115
854.744625 858.180809 2888.058662 53 59 58
931.638622 332.741785 3159.337807 147 145 145
948.414612 238.426113 3207.453156 166 156 147
966.331959 24.241525 3274.022675 188 184 175
873.066235 893.560505 2889.161491 155 153 152
939.308071 345.446754 3135.160637 175 174 170
915.569973 540.879917 3038.002396 154 166 164
969.678402 84.649813 3232.101440 103 90 78
962.400913 247.372890 3182.718468 119 113 104
923.023796 523.025179 3042.202950 99 101 95
919.612312 529.575634 3031.961632 103 106 104
937.510681 419.196510 3086.399651 117 118 112
937.510681 419.196510 3086.399651 117 118 112
887.914085 864.609337 2886.619949 130 127 123
890.227795 658.348083 2911.646843 173 172 168
907.815361 676.844215 2928.210831 173 168 165
928.532028 885.410309 2928.006172 40 46 49
984.279251 125.499725 3184.104729 101 106 107
967.738342 249.843574 3125.449753 122 128 127
982.507896 159.548616 3168.694878 127 131 130
1011.573029 30.186075 3253.358841 141 144 142
982.541847 174.713826 3163.441467 141 144 145
959.643364 382.229304 3075.010872 130 128 125
832.056427 1775.233269 2540.391731 171 182 186
935.313988 851.889038 2921.335030 150 168 164
948.439693 717.956781 2968.557167 25 33 34
977.375031 729.207754 3021.349525 25 33 34
944.283104 825.070095 2932.001686 56 66 66
921.720600 647.975206 2900.516701 89 98 95
995.661831 916.382790 3013.304329 130 139 140
960.567284 565.408468 2961.874580 126 128 128
1059.580517 366.890240 3202.831650 204 203 204
1108.166504 138.468969 3340.816879 206 207 207
1237.256241 331.578827 3511.328506 155 157 158
1024.644375 1843.758392 2797.103691 191 186 185
986.551952 1894.312286 2701.812363 171 172 171
1242.055702 1242.311859 3335.605621 199 204 208
1031.734562 1854.187393 2764.532471 177 179 177
1345.092583 -38.033545 3680.899429 147 146 148
1144.305325 1247.538090 3029.275703 117 116 117
1214.902401 1298.200512 3008.363342 209 205 204
1409.857178 157.760835 3516.525650 209 207 201
1159.370708 1668.152237 2807.868576 153 156 168
1326.764202 678.805065 3274.911118 159 157 157
1187.835407 1499.849796 2879.911041 164 159 157
1175.417328 1611.927986 2823.945808 147 143 143
1272.367477 1220.514870 2993.015480 143 144 141
-1248.685455 1793.791962 4087.303925 155 145 141
-1175.244999 1994.257164 3889.484406 150 147 147
-1250.587749 1016.074848 3910.777283 82 87 85
-1263.375378 1466.184139 4298.484039 189 180 177
-1235.512733 983.010101 3973.097610 194 184 178
-1170.000744 1190.646744 3843.600464 83 87 81
-1210.395527 1575.589180 4224.452209 124 115 109
-973.009396 2127.747917 3228.487778 181 176 177
-1271.966267 714.642096 4210.684204 139 137 133
-1214.791489 1515.251255 4268.480682 120 118 117
-1214.791489 1515.251255 4268.480682 120 118 117
-1255.120277 750.202084 4176.694489 155 157 155
-962.706089 2061.596680 3191.039658 166 173 173
-1256.435204 697.921944 4197.277069 186 186 186
-1172.049332 981.531334 3868.284607 132 139 139
-1126.864243 1256.063271 3758.223724 37 51 55
-1267.716789 631.704330 4255.863953 123 119 117
-1260.672283 655.098295 4230.945587 117 114 112
-942.133713 2144.466972 3205.493927 90 92 92
-1124.331856 1334.619713 3864.590836 48 51 54
-1105.622768 1280.021477 3739.243317 35 46 50
-1033.201885 1818.514442 3601.511383 211 206 203
-1060.969830 1657.244110 3709.771347 206 200 196
-1274.233055 444.252729 4373.370743 178 181 183
-1106.008720 1269.526100 3828.163910 111 126 124
-1218.844700 700.443077 4209.078979 171 177 182
-1193.634510 804.087257 4123.376465 188 191 192
-1074.753380 1718.377876 3867.428970 206 200 196
-1176.944256 811.653423 4128.870773 168 171 177
-1176.334572 768.828106 4179.006958 93 93 96
-1176.334572 768.828106 4179.006958 93 93 96
-1060.062504 1238.164330 3723.857880 136 142 140
-937.122250 1873.094177 3298.598862 163 161 161
-848.360538 2219.568634 3017.585182 159 183 184
-866.426277 2162.557220 3108.064651 167 159 159
-1031.862545 1250.032139 3673.064041 123 129 129
-1016.957283 1406.315517 3666.369247 180 177 173
-1016.957283 1406.315517 3666.369247 180 177 173
-1117.099380 887.237263 4062.053299 107 108 104
-1141.714954 757.084465 4174.666595 69 71 73
-1141.714954 757.084465 4174.666595 69 71 73
-1083.679104 950.718212 3920.862198 161 172 172
-1041.528130 1123.998547 3754.572296 109 115 113
-1010.984898 1315.201855 3703.063965 101 103 103
-1016.873550 1194.726753 3729.476166 37 52 51
-1020.527840 1161.976814 3741.889572 97 102 103
-1020.527840 1161.976814 3741.889572 97 102 103
-1000.163937 1325.180435 3702.622986 156 160 160
-1027.667427 1109.293842 3770.039749 23 37 37
-1010.294437 1166.700554 3724.814987 58 65 64
-815.940762 2226.362610 3041.005898 61 86 86
-864.962769 1934.867668 3286.545181 179 181 185
-991.770744 1153.723431 3715.341568 142 142 138
-1161.971283 309.496355 4442.674637 221 217 211
-787.762308 2283.802223 3051.186752 198 201 206
-1043.480301 857.070065 4072.712708 189 191 191
-926.041412 1456.904602 3633.075333 178 181 185
-1012.346077 863.745880 3940.216446 114 120 121
-1040.894699 803.354359 4143.084717 100 108 108
-1040.595341 774.850464 4155.545425 202 202 202
-1056.749439 678.414154 4220.057678 152 158 171
-811.716938 2091.104317 3278.849792 70 66 65
-893.356895 1577.624798 3584.722519 88 86 88
-1098.444176 365.737915 4373.781204 197 194 199
-1015.268230 842.518330 4046.875763 180 182 183
-966.345882 920.242596 3741.839218 99 108 108
-893.267345 1543.847084 3590.415955 84 78 77
-943.939590 1077.763367 3729.631042 34 43 48
-1087.934303 318.712807 4389.289856 132 126 126
-968.665600 895.592880 3887.335968 41 46 44
-831.716728 1893.328476 3480.294418 189 182 179
-842.061996 1981.815720 3671.655655 212 202 196
-896.573448 1352.384853 3820.477295 57 61 63
-860.817909 1738.269615 3841.911316 125 111 100
-938.259888 856.747532 3887.420654 105 110 105
-899.262047 1264.115429 3847.516632 31 35 36
-864.676476 1696.983528 3885.214996 158 182 198
-819.652748 1882.386208 3731.053543 179 170 163
-917.139053 837.724113 3897.386932 145 142 135
-807.813835 1667.316246 3540.026855 151 136 123
-728.234053 2315.309906 3332.460403 108 116 117
-813.926888 1836.175156 3749.013138 169 162 156
-896.171093 995.355320 3958.778381 46 52 53
-862.712193 1471.788597 4019.243622 131 139 146
-722.631216 2240.322113 3324.560165 78 83 87
-722.631216 2240.322113 3324.560165 78 83 87
-876.976776 1088.488960 3927.449036 137 138 140
-953.413105 526.229143 4260.802078 85 93 97
-706.256151 2249.832344 3335.594940 75 81 87
-712.489319 2198.246193 3434.207916 98 88 84
-754.643202 1901.242828 3686.608887 203 212 222
-754.643202 1901.242828 3686.608887 203 212 222
-926.097775 427.949142 4230.354691 211 209 209
-723.645830 2031.030846 3553.084946 107 99 93
-743.257236 1860.113716 3680.566788 95 87 80
-912.174511 588.953972 4416.723251 105 114 120
-763.092470 1650.348282 3827.333450 179 183 188
-813.795376 1255.562401 4120.513916 66 73 83
-667.140245 2251.275444 3415.574265 89 91 92
-793.720055 1380.063534 4028.549957 85 83 83
-801.472473 1321.263885 4080.668259 96 95 95
-646.651077 2277.390289 3340.387344 77 69 65
-893.781281 191.900122 4315.018082 229 224 218
-859.044456 744.937992 4464.487839 48 52 55
-618.099356 2337.849045 3179.173470 168 169 175
-871.410751 427.400446 4332.463455 121 128 131
-652.666140 2224.796486 3512.909698 162 171 173
-755.395985 1508.603096 4034.571075 177 183 189
-644.920683 2242.568016 3445.626068 156 164 165
-641.360521 2245.917892 3487.010956 92 91 90
-722.085333 1683.929825 3916.358948 61 60 62
-847.952461 678.214025 4494.617844 115 125 129
-618.943024 2325.567818 3354.737473 85 90 86
-836.652088 745.901728 4452.508163 149 167 178
-808.885956 1002.260113 4397.515106 170 178 182
-785.572338 1180.324650 4294.302368 58 65 72
-739.811277 1492.954445 4055.936050 77 82 85
-733.871937 1515.191841 4021.885681 78 83 90
-761.977768 1295.931816 4169.532013 48 56 59
-624.858570 2260.945892 3440.751648 81 79 78
-624.858570 2260.945892 3440.751648 81 79 78
-620.938540 2253.424835 3422.357178 78 74 73
-828.455544 668.586206 4481.684875 137 147 148
-798.614359 952.070236 4421.557999 142 155 159
-777.330065 1118.813229 4335.723877 96 98 99
-728.272820 1451.803780 4065.318680 151 166 176
-813.748074 751.587009 4442.250443 110 118 122
-585.916424 2358.101463 3180.287170 184 186 185
-774.835825 1097.504425 4322.724152 115 119 117
-751.838160 1219.717312 4178.437042 41 53 58
-773.966551 1066.558170 4341.678619 156 154 153
-866.503716 -13.070688 4400.856781 155 144 137
-790.817881 919.677544 4442.432785 132 143 148
-762.138653 1110.882092 4313.710403 25 28 26
-821.097565 570.266199 4538.927841 37 41 45
-821.097565 570.266199 4538.927841 37 41 45
-766.095495 1003.434563 4362.469864 122 121 116
-823.229122 247.607517 4301.897812 150 145 145
-782.258940 749.271154 4414.020157 169 176 179
-745.070171 1083.080196 4317.569733 38 33 30
-750.802040 1025.470543 4352.814102 27 25 24
-724.368858 1078.772640 4306.529617 140 138 134
-696.930313 1275.285435 4180.624771 164 167 170
-556.824684 2291.864586 3348.538971 163 161 163
-560.215092 2294.242477 3482.245636 79 77 77
-745.952606 766.391468 4505.807495 114 132 137
-770.478106 318.210101 4376.578140 128 140 142
-750.914574 607.210255 4467.746735 145 155 156
-741.858816 686.673498 4461.437225 71 74 78
-719.907856 912.809181 4413.816071 176 179 182
-769.018793 348.805189 4458.520126 99 115 122
-636.604977 1634.134483 4061.298370 78 80 82
-718.834066 880.297947 4426.134872 172 177 179
-544.472027 2281.605911 3501.932144 179 177 178
-544.472027 2281.605911 3501.932144 179 177 178
-629.124641 1595.243168 4048.844528 87 89 90
-659.250832 1321.071529 4232.883835 123 129 135
-702.333450 902.820396 4421.812820 172 177 178
-710.552311 813.744736 4462.182236 159 163 166
-710.552311 813.744736 4462.182236 159 163 166
-660.794735 1283.840275 4298.799133 148 163 175
-657.796383 1295.385551 4276.374054 154 172 179
-596.287489 1783.558464 3933.456039 170 182 191
-735.894680 359.906983 4523.644638 138 155 154
-677.768946 1000.779629 4471.555710 75 76 76
-583.566999 1754.677200 3943.844604 155 166 171
-630.796766 1298.201275 4228.041077 152 168 183
-597.626400 1591.993141 4068.892670 162 170 178
-553.950596 1956.628799 3783.629608 129 135 140
-553.950596 1956.628799 3783.629608 129 135 140
-683.134556 780.154228 4456.948471 55 64 65
-638.857031 1213.100624 4289.466476 160 174 182
-723.851681 314.277649 4486.238480 117 130 131
-577.291536 1741.374779 3953.039932 84 81 79
-503.620625 2337.885284 3428.206635 136 134 134
-718.704748 182.554281 4282.202530 141 146 142
-495.256615 2372.335815 3407.539749 96 89 82
-661.626148 904.095078 4490.609741 89 93 95
-631.871033 1147.763252 4354.969025 167 170 167
-598.895502 1433.101463 4151.858902 168 177 181
-750.933170 -221.525621 4456.924820 191 186 181
-603.917122 1295.786095 4226.922989 152 165 169
-623.824263 1105.479717 4379.845047 176 180 182
-586.450529 1323.853970 4210.359955 29 39 40
-535.514879 1760.639191 3886.614990 96 97 98
-471.194029 2319.988060 3405.961609 159 152 148
-585.667419 1264.124680 4194.550323 63 72 77
-707.195425 -115.889812 4393.114090 154 148 150
-452.522898 2347.103119 3001.858902 190 190 194
-509.259605 1934.539032 3758.751297 109 109 110
-649.364424 582.492924 4553.377914 102 122 125
-649.364424 582.492924 4553.377914 102 122 125
-468.086529 2286.935616 3465.882111 91 88 87
-588.597822 1146.184921 4320.749664 206 206 207
-662.849092 350.688100 4536.823654 38 49 52
-582.571793 1177.775002 4268.213654 173 172 173
-657.306337 385.767794 4538.147736 29 45 49
-678.745651 8.268733 4286.372757 73 83 86
-678.745651 8.268733 4286.372757 73 83 86
-666.665125 152.975631 4307.472610 131 144 144
-563.708687 1306.173325 4211.334991 61 66 66
-632.183504 554.626036 4555.040359 87 111 121
-557.202768 1302.642059 4209.973526 48 52 57
-564.403391 1206.156254 4210.603714 164 166 165
-575.885439 1072.734451 4400.744629 170 171 172
-508.608627 1728.715897 3972.567749 72 65 65
-620.795822 540.820169 4557.473755 84 107 115
-517.420244 1609.450150 4079.104233 98 98 100
-517.420244 1609.450150 4079.104233 98 98 100
-667.047548 -80.226928 4297.211075 223 219 218
-531.781626 1443.115139 4185.818481 93 94 97
-531.781626 1443.115139 4185.818481 93 94 97
-517.234802 1585.676575 4101.398849 118 118 119
-542.331076 1320.041275 4226.228714 132 151 165
-539.781094 1343.474770 4251.345825 46 64 74
-551.871586 1180.559063 4216.125870 168 168 168
-628.724003 352.540565 4534.426498 20 29 33
-553.024960 1145.528030 4400.708389 122 124 125
-596.826506 593.087435 4519.406509 115 117 117
-483.470058 1697.746658 4026.543045 186 194 203
-539.686441 1094.656849 4463.655472 83 86 87
-517.989397 1304.781628 4300.469208 103 112 118
-517.989397 1304.781628 4300.469208 103 112 118
-599.182510 344.891286 4520.472717 88 114 125
-599.182510 344.891286 4520.472717 88 114 125
-576.764393 599.772787 4510.446930 92 98 95
-572.313070 575.741148 4532.119370 108 114 114
-399.181247 2363.466835 3455.743790 72 70 70
-561.391163 632.288742 4520.501328 96 102 102
-388.912416 2382.397652 2964.068794 111 116 112
-497.135305 1279.836464 4266.371918 131 149 156
-448.663855 1789.937210 3964.522552 192 199 207
-515.346479 1067.108059 4498.488235 154 168 177
-560.597467 491.024828 4562.727356 49 61 63
-563.038588 448.865080 4476.224899 34 41 41
-394.585252 2292.379379 3565.151215 187 188 189
-418.436527 2026.492310 3776.837540 212 213 216
-592.952251 36.013821 4328.384399 206 207 205
-472.744751 1395.258904 4265.755844 188 196 204
-472.744751 1395.258904 4265.755844 188 196 204
-374.155307 2446.665001 3281.783676 63 71 80
-612.708807 -276.538444 4374.005890 159 146 136
-528.763914 518.946218 4513.930893 119 138 141
-357.518387 2454.245949 3263.909531 166 177 176
-364.867854 2347.517586 3462.938690 89 84 79
-364.867854 2347.517586 3462.938690 89 84 79
-354.891491 2374.422264 3359.033966 98 95 89
-349.823785 2405.325317 3176.961136 102 107 107
-438.413000 1289.812946 4306.271744 135 150 156
-526.339817 261.211443 4517.824554 26 41 44
-342.414021 2353.042221 3633.397293 98 100 105
-435.566139 1229.077053 4498.738480 110 115 122
-545.812178 -89.205974 4254.113770 92 116 125
-438.026237 1071.685123 4520.571136 153 170 177
-543.868256 -118.819153 4227.253723 221 221 215
-349.605584 2124.845505 3898.081589 176 185 193
-542.490911 -120.882905 4251.723099 221 221 215
-544.600153 -188.492560 4381.037521 215 213 213
-463.819456 690.357065 4570.177841 152 161 165
-481.303358 488.235617 4506.984329 131 153 162
-513.549328 119.074631 4423.369980 93 119 125
-504.024029 205.479264 4515.510178 31 38 38
-482.993841 413.307667 4556.919098 28 34 33
-455.829144 729.210901 4481.027603 157 165 167
-433.664465 936.902809 4534.928131 158 171 178
-520.615530 14.947486 3945.644379 88 97 95
-447.075319 716.658497 4514.564896 117 132 140
-313.065481 2424.705315 3140.294456 134 136 136
-307.677460 2361.329460 3644.684601 95 98 100
-307.677460 2361.329460 3644.684601 95 98 100
-423.644829 865.963268 4557.829666 165 179 187
-501.499414 3.400807 4233.943558 88 97 95
-455.901527 463.524961 4519.210434 126 154 160
-374.487948 1320.766258 4402.320099 86 93 95
-334.838939 1810.897827 4047.908401 194 202 208
-459.744263 291.011643 4442.771912 97 109 110
-286.724925 2409.776878 3561.663437 58 53 51
-306.514359 2339.476204 2894.806290 214 211 208
-283.048463 2384.525490 3540.647125 134 129 130
-281.035781 2433.583832 3382.858658 108 93 79
-371.212649 1092.880440 4569.618988 170 180 187
-371.355796 1064.985085 4577.339554 48 67 76
-332.030725 2062.782478 2479.689980 137 136 140
-359.097815 1102.013969 4550.902557 177 188 193
-369.665408 926.537704 4589.104080 96 115 124
-334.695244 1147.965240 4534.487915 162 173 176
-341.842961 1014.686012 4600.899124 46 65 70
-397.786117 380.168700 4507.874298 123 150 159
-342.610788 851.182842 4565.161896 144 165 175
-319.995761 1107.189369 4519.398880 78 90 92
-392.228723 240.269709 4446.176147 77 91 94
-292.216802 1355.410957 4444.514847 154 166 168
-222.385430 2389.443016 3731.225586 98 101 103
-421.588278 -89.310044 4190.132523 200 198 197
-277.856779 1367.246819 4445.125580 51 62 68
-304.543924 933.957291 4621.458054 45 61 73
-217.855048 2490.575600 3353.305817 178 176 177
-210.651445 2398.682976 3701.014709 79 76 76
-216.147685 2440.875053 3433.386612 161 163 163
-216.147685 2440.875053 3433.386612 161 163 163
-334.358525 520.915413 4568.470383 119 133 135
-259.438682 1388.174629 4425.213242 110 128 144
-297.075677 835.215473 4620.672989 54 67 70
-362.174702 170.708597 4442.950439 26 46 51
-417.841911 -454.456854 4302.553558 152 151 147
-412.572050 -393.754101 4276.248550 81 75 69
-197.132719 2493.573761 3350.837326 173 173 172
-323.041892 359.787917 4467.400360 123 143 148
-262.950706 977.505112 4538.073349 163 172 174
-271.406817 2053.281021 2473.378563 212 209 211
-252.859211 926.540279 4575.622559 71 87 91
-308.088422 275.951290 4518.343353 24 32 31
-320.604467 166.207147 4430.192184 34 50 60
-320.604467 166.207147 4430.192184 34 50 60
-213.329530 1208.015919 4564.251709 156 168 176
-205.245614 2322.973061 2862.507057 193 195 192
-231.784368 837.306213 4624.031067 37 52 59
-290.733314 233.737159 4500.624084 57 83 93
-279.437256 287.787461 4475.068283 93 117 123
-293.520188 170.416546 4411.056137 71 89 89
-259.736776 349.189186 4492.733002 30 37 33
-143.908012 1863.792419 4171.997833 103 108 115
-123.601031 2283.686447 3870.330429 75 79 83
-118.272865 2426.880646 3748.219299 90 89 89
-203.085017 840.287113 4578.579330 172 187 194
-113.806498 2437.460899 3736.587906 152 151 152
-150.549364 1516.179657 4405.672836 117 124 131
-189.615953 793.278599 4623.696136 140 166 174
-229.680824 2033.815193 2445.342636 212 212 214
-242.524529 309.822059 4463.458252 19 31 31
-227.801657 2035.417747 2437.068748 138 133 136
-99.976397 2498.697281 3632.809830 68 61 61
-178.017628 856.995296 4566.119385 151 164 166
-308.291292 -236.111546 4109.800720 208 210 206
-248.456860 178.977656 4418.850708 30 40 39
-103.445578 2496.525574 3523.818588 104 99 97
-92.816406 2459.558296 3643.712234 68 66 63
-165.186393 2273.322487 2869.355965 119 127 126
-122.861278 1244.769955 4651.605988 159 178 183
-160.042608 2314.325523 2863.734436 132 137 136
-108.231437 1275.331879 4638.834381 143 160 168
-90.588403 1789.774513 4240.266418 112 122 129
-171.101320 628.740835 4544.675827 134 158 165
-270.568395 -159.243762 4126.371002 191 190 191
-86.030978 2486.633301 3412.541199 155 151 150
-98.793310 1155.657387 4661.980438 51 70 81
-202.198029 2028.343010 2424.880028 140 133 141
-145.365572 590.648937 4533.245850 139 158 167
-182.422745 251.095915 4446.599197 79 102 109
-49.164021 2518.519783 3565.222549 92 87 88
-43.162301 2494.396782 3655.239868 154 150 151
-44.463050 2462.158775 3662.250900 172 170 169
-41.800103 2514.031982 3637.295151 142 140 140
-64.737886 1170.041275 4665.135574 143 161 166
-255.253267 -499.071264 4206.850052 128 125 120
-110.161841 703.572702 4606.855392 120 141 148
-124.745929 2262.226677 2855.627060 134 140 137
-161.260605 226.030374 4437.467575 33 51 56
-86.322242 795.920277 4577.519226 41 53 57
-70.565647 922.469807 4603.911209 123 144 150
-163.402617 109.203017 4327.157211 69 81 84
-221.117783 -409.815502 4168.414307 197 193 189
-160.098231 2016.951942 2406.943703 128 128 130
-86.741763 2253.743553 2849.769592 126 128 133
-42.120999 673.886156 4582.212448 123 148 156
6.061826 1024.224472 4713.256836 122 147 158
62.675822 2613.469124 3872.379684 44 41 45
-180.715561 -397.640610 4122.821045 126 124 120
-184.995306 -440.421724 4113.844681 166 166 167
-183.407044 -440.151119 4124.918365 166 166 167
13.041590 1005.052376 4711.708832 63 78 83
-147.813833 -366.521859 4359.899902 202 203 203
-6.579804 861.909103 4589.190292 127 149 156
36.980209 2552.945900 3541.712189 170 166 165
53.607064 1298.451710 4704.801559 50 60 67
-15.789415 628.311729 4583.272171 61 91 99
-12.665418 642.574930 4564.365005 36 57 62
119.048882 2203.560638 4280.142593 97 94 93
-4.785738 529.680967 4485.926437 146 168 174
127.549577 2504.299736 4046.940231 54 65 94
125.697160 2374.903107 4129.575729 52 69 103
-42.839792 2268.315697 2821.919441 109 110 110
-138.300252 -504.631424 4135.167313 91 91 87
72.128093 2551.671982 3521.498489 124 118 117
137.191355 2366.806221 4174.156952 37 37 34
133.522856 2558.737946 3992.361069 65 84 115
83.714277 2534.762192 3602.146912 147 138 136
155.972874 1694.515610 4674.018860 47 43 43
-116.860747 -534.914589 4136.915207 177 177 169
157.034457 2305.052757 4207.893372 71 84 110
46.429509 2419.927216 3265.301514 101 106 102
-30.651855 115.401649 4320.891953 48 77 87
13.151754 406.153345 4440.382385 39 54 58
93.797612 2521.181297 3541.440964 125 117 117
81.658101 822.292423 4635.157776 119 144 150
13.838974 321.696377 4410.853195 89 105 107
-25.288236 74.097627 4276.431656 69 91 97
64.537805 649.469090 4522.673798 141 160 165
64.537805 649.469090 4522.673798 141 160 165
-4.945447 -27.776825 4307.487869 29 60 72
2.932076 2231.775475 2816.803551 132 134 136
193.806291 2481.595993 3996.721268 98 91 90
46.038246 2349.362373 3008.843422 105 114 111
196.998882 2571.776772 3921.316910 48 41 35
199.654865 2619.821358 3896.482086 53 46 38
207.040739 2237.604904 4170.192719 78 75 73
214.120650 2247.516823 4175.435638 92 87 84
-48.505297 -495.767975 4098.808289 158 156 155
-48.505297 -495.767975 4098.808289 158 156 155
-0.816514 -135.330117 4072.654343 85 105 111
236.120319 2626.358795 3862.922668 50 39 33
241.921520 2577.478409 3896.708679 32 27 24
251.951361 2252.945900 4116.960144 74 71 73
113.835740 358.742642 4366.550827 124 135 135
279.068637 1787.456131 4526.015854 80 79 82
249.662352 1138.880825 4685.652161 19 36 42
247.762775 1258.549595 4585.880280 65 85 91
122.724199 333.426332 4337.248230 111 128 133
226.491451 887.462330 4622.241592 108 133 143
99.703032 2335.421753 2982.982254 120 127 124
284.053636 2508.474731 3951.419067 44 36 29
194.609928 537.009621 4507.781601 28 41 44
248.343682 918.036079 4607.634735 143 157 164
278.815413 1060.423470 4706.030655 101 120 127
70.128727 2214.296341 2783.547020 135 141 140
299.670982 2341.549492 4059.026718 73 73 83
28.850830 -395.498252 3973.601532 168 172 175
239.594722 755.369091 4531.067657 126 155 162
301.660228 2574.281502 3873.240280 108 102 98
41.666889 -296.682286 3913.135147 186 193 191
226.730847 599.398518 4442.558289 157 173 176
63.265085 -275.923657 3928.519821 55 64 66
219.046521 481.853104 4382.672119 100 136 150
352.644610 2087.538147 4239.525223 38 32 29
176.567876 196.858978 4254.240799 72 84 83
321.933770 2621.036720 3772.653198 144 124 110
341.743159 1062.610340 4654.553604 39 58 62
264.035368 2498.718643 3461.098480 111 102 98
347.465134 1077.527332 4647.151184 124 140 147
155.749869 2320.044708 2963.521194 125 129 129
63.307214 -564.876890 3940.232086 198 198 196
210.508156 2413.546371 3201.290131 123 125 117
338.184333 2521.513748 3827.354431 50 43 35
351.766276 2550.253868 3872.173691 50 43 35
351.304817 2589.929962 3847.387695 41 36 35
333.274627 912.057400 4593.928146 126 142 148
354.026508 1244.436836 4528.626251 67 82 87
261.930704 2464.968491 3414.137268 121 111 107
392.619538 1806.693268 4427.992630 97 90 89
392.619538 1806.693268 4427.992630 97 90 89
280.017090 2465.418243 3476.370239 119 114 110
285.128355 608.931637 4416.067505 137 155 160
361.278200 2450.543594 3889.640045 37 34 29
240.954661 381.734943 4285.299301 28 39 41
375.197554 1036.110306 4642.326355 116 135 138
354.054785 889.263153 4561.871338 123 140 145
385.632896 2496.501350 3890.028763 73 73 81
385.632896 2496.501350 3890.028763 73 73 81
331.269360 740.163088 4421.990585 129 151 157
394.879794 2530.817986 3868.027115 63 67 82
263.598132 229.822731 4296.136856 31 42 42
148.068297 2194.716644 2760.939217 132 137 136
318.535328 2463.146782 3445.463562 115 108 104
439.921808 1189.596462 4497.012329 131 143 144
355.758476 630.973911 4349.581146 137 149 153
464.765501 1995.032120 4242.494965 82 83 85
480.036688 1712.451553 4441.545105 88 83 82
480.036688 1712.451553 4441.545105 88 83 82
451.749992 2253.944969 4053.541183 85 80 80
343.562365 2471.808815 3423.333740 100 91 84
173.461378 -500.965500 3937.096405 177 175 174
175.550008 -487.016678 3932.208633 186 184 182
365.450668 2466.710663 3414.900589 103 91 83
481.889534 1099.288940 4543.083191 28 39 42
301.044846 2378.199196 3147.880363 115 116 112
189.487183 -539.296579 3904.772186 194 195 192
192.671740 -275.252128 3799.538422 91 99 98
486.268950 1199.128342 4476.919937 45 63 68
486.268950 1199.128342 4476.919937 45 63 68
488.359737 1237.040138 4456.392288 146 149 149
211.121583 -428.283024 3875.601959 80 66 64
493.950176 2447.843170 3878.281021 62 72 99
478.312874 900.892258 4455.152512 113 123 126
208.381176 -634.993458 3913.451767 41 52 54
329.940343 75.939363 4099.581146 39 52 59
406.442738 2465.147972 3391.704941 159 148 141
360.307097 97.724867 4153.817368 56 87 94
543.539524 2187.262726 4023.094559 40 35 31
546.609735 1079.788685 4486.236954 69 72 69
518.763685 936.829758 4414.183807 66 74 77
536.824274 2132.246971 3987.960815 49 51 76
248.850060 -625.375986 3897.061157 90 97 100
458.873177 654.350853 4254.402161 141 148 148
251.335979 -362.410641 3793.877792 160 153 145
349.355936 41.927144 4025.564575 30 43 45
556.420088 2345.024872 3931.764984 90 86 90
556.190538 2182.411957 3989.673996 58 64 77
565.168524 1155.560398 4437.262344 42 48 49
437.745857 2443.663406 3389.392853 95 83 81
443.097496 2471.320915 3388.602448 185 181 172
549.200916 2496.041679 3811.466217 49 59 80
585.762215 1997.260094 4157.344437 74 75 79
542.185879 2542.428017 3756.635666 67 65 64
442.210340 2452.346039 3379.187012 109 97 90
375.575471 53.867090 4012.439728 27 35 34
568.961716 1149.588871 4359.753799 138 143 142
406.247091 197.973287 4073.104095 38 40 40
406.247091 197.973287 4073.104095 38 40 40
406.247091 197.973287 4073.104095 38 40 40
583.585072 1078.503513 4395.800400 49 48 46
421.358061 193.623662 4069.132996 82 87 83
389.118552 44.939032 3993.200684 97 113 113
595.311356 1175.244236 4365.550232 133 136 138
585.393524 1096.940136 4352.592087 65 63 59
393.888712 2294.797325 3103.492928 84 85 84
584.592533 1338.687420 4201.170349 23 21 21
317.991424 -531.370592 3852.712631 163 164 163
559.752369 1679.339027 3933.732986 160 161 162
597.390509 1112.825680 4288.240814 150 148 147
525.670815 547.448826 4226.022339 46 56 61
525.670815 547.448826 4226.022339 46 56 61
567.787218 1593.378067 3986.257553 172 167 161
592.778969 1170.699692 4239.721298 172 170 169
529.159451 2274.189377 3547.178650 164 158 155
607.314682 1077.263641 4288.761902 139 140 139
550.792694 1677.940941 3848.128510 137 133 132
562.387466 1691.623878 3880.064774 137 133 132
584.402704 1343.122673 4090.496063 154 155 153
531.696701 2295.153046 3530.400467 101 97 95
517.431593 2311.073303 3460.015106 139 124 115
523.556852 2355.160904 3464.551544 53 47 39
433.965921 53.653121 3966.843796 36 47 49
583.160734 872.031021 4223.912430 156 161 160
541.499615 2310.483742 3535.542679 169 158 150
617.495060 979.726601 4310.887909 116 119 117
476.256275 216.569662 4018.391037 38 43 41
476.256275 216.569662 4018.391037 38 43 41
355.520248 -501.220942 3831.019974 172 168 163
542.904329 541.235924 4140.444565 114 132 136
571.986723 1973.957253 3722.634506 94 90 86
359.075594 -130.480874 3696.961594 46 53 54
481.247139 173.382366 4008.840561 79 92 89
517.419863 2286.353302 3367.766571 54 44 37
517.419863 2286.353302 3367.766571 54 44 37
582.728624 688.974047 4176.813126 94 92 90
581.398249 1957.486343 3681.975555 151 152 150
533.546257 290.453911 4087.539291 34 40 39
608.848667 1662.613487 3865.634918 87 86 84
624.207401 941.025352 4175.162506 150 151 149
601.851130 677.909231 4180.032730 166 169 169
561.009932 2212.192535 3475.281906 97 86 82
508.199835 2317.589569 3248.521805 88 74 66
645.703030 1567.390823 3994.667053 138 134 129
549.381208 342.669892 4046.286774 106 114 116
635.683870 1208.526802 4041.842270 56 63 65
557.486582 424.679804 4014.452362 152 153 153
558.621407 296.993828 4051.362610 36 42 40
638.761950 701.328993 4139.405823 81 95 99
602.952194 582.774591 4052.075577 133 149 154
575.926733 2205.181885 3392.661667 100 95 95
409.401798 -521.898127 3749.541092 157 154 149
522.270823 2312.168884 3168.326569 87 66 51
674.366379 967.165184 4132.943344 149 150 147
651.910639 1181.757545 3978.272247 58 68 68
581.336737 392.755342 3988.740158 146 152 151
656.392479 773.681450 4105.354691 69 81 85
527.906704 49.801618 3900.246048 68 80 81
617.185879 530.761766 4037.399673 82 89 91
632.896852 1596.449184 3730.465317 76 71 72
599.097872 383.435655 4002.799988 139 141 139
653.468609 657.774591 4091.970062 95 97 97
536.227894 109.134078 3869.903183 42 52 53
645.873833 528.913307 4085.476303 101 114 116
526.862860 123.671925 3822.642136 113 122 118
668.041277 827.074909 4057.721329 90 93 95
601.492071 389.174891 3979.273987 90 94 93
548.162127 2253.099442 3181.409836 169 161 157
637.127066 568.967819 4029.470825 125 140 143
574.896526 178.720880 3945.090866 73 86 92
644.752979 1145.176029 3853.858185 49 50 50
644.752979 1145.176029 3853.858185 49 50 50
690.138721 954.521465 4060.838699 72 63 51
532.222986 2332.771492 3079.828262 112 110 105
565.609932 2191.388702 3230.758667 180 174 171
638.214588 1683.009338 3635.178375 113 109 105
461.251211 2251.364326 2861.313248 113 114 113
577.217722 2153.235435 3264.724731 171 161 149
544.834232 2245.188141 3123.567009 76 62 48
558.044386 71.209806 3871.759033 68 86 87
571.178865 166.200376 3881.600571 37 47 53
712.816525 1160.521698 4009.484482 147 141 136
560.118675 103.647828 3852.009964 84 105 108
693.362236 758.854818 4069.361115 166 167 167
404.033279 2145.915794 2677.411842 140 136 136
630.361462 1612.931633 3580.384827 178 171 165
646.521378 1440.803146 3677.429199 182 178 174
582.214642 2199.963188 3219.420624 86 78 73
473.547745 -512.177610 3738.502884 178 177 176
481.940699 -56.395769 3619.316864 34 55 67
464.896011 -76.978320 3567.230606 68 79 77
646.422148 1528.179359 3621.753693 179 180 182
689.339352 896.143723 3960.488510 160 162 162
688.486290 987.804890 3927.603912 168 169 167
577.700567 2233.487511 3161.480522 87 75 66
704.994822 812.678051 4020.458221 161 162 162
579.626751 152.635336 3816.124344 53 59 63
616.291380 290.235233 3874.489212 37 41 36
686.249399 661.131859 3973.518753 136 148 149
682.927465 781.199551 3907.381439 119 117 117
729.281521 781.117010 4050.463486 68 76 75
729.543257 822.470951 4018.878555 161 165 165
558.717871 6.452064 3742.048645 98 117 120
558.717871 6.452064 3742.048645 98 117 120
665.267134 399.852324 3949.058533 54 51 47
493.284893 -98.279268 3561.423492 153 166 165
729.235792 849.372482 3993.922043 154 154 156
483.731318 -202.687812 3557.655334 239 231 225
432.506704 2178.567123 2652.610207 116 114 113
698.237467 1026.670647 3820.217133 150 146 141
503.347492 2234.326935 2837.225723 106 106 104
596.434546 2154.202080 3146.074295 73 60 57
596.434546 2154.202080 3146.074295 73 60 57
714.495134 582.113791 3997.629547 45 49 48
714.495134 582.113791 3997.629547 45 49 48
437.984085 2168.328667 2642.609215 107 107 102
681.456614 514.737511 3882.432556 138 147 146
562.430954 2266.766739 2974.433517 102 101 90
444.157887 2154.090500 2648.465538 167 163 161
610.203314 130.136931 3766.847610 27 33 37
522.653961 -32.222277 3547.482681 30 34 36
623.702383 128.000534 3801.467896 27 33 37
634.285879 94.280243 3843.230820 22 27 29
561.098099 2242.116356 2945.112038 99 97 88
698.700333 543.652391 3863.079834 139 147 147
635.674095 92.675090 3800.460815 77 84 87
610.361338 2127.831841 3103.506279 76 66 65
610.361338 2127.831841 3103.506279 76 66 65
747.183228 627.003288 3945.827866 68 66 64
747.183228 627.003288 3945.827866 68 66 64
737.946129 1205.399609 3734.493256 93 83 79
740.130043 1147.674370 3755.141449 92 84 75
744.424105 865.250683 3848.560333 167 167 167
721.637344 473.706245 3879.329300 136 138 135
735.983038 1195.140839 3692.129135 182 175 169
671.373701 246.078157 3777.228546 51 47 48
732.915831 1203.930473 3661.079788 84 80 76
662.369108 153.533638 3766.290665 91 101 102
730.603695 576.056814 3825.452042 161 162 161
732.572746 1188.050079 3650.041580 82 75 71
730.121756 1033.323669 3687.767029 144 148 146
552.531910 -282.871389 3559.353638 206 200 194
664.021540 236.784911 3725.337219 119 125 123
710.789108 937.752438 3638.542557 58 62 63
741.783953 1033.864880 3696.153641 129 135 137
621.635914 2141.641617 3023.154449 68 56 46
735.067320 913.312244 3705.692673 114 104 96
673.542547 223.508453 3728.128433 30 36 36
751.789331 626.560497 3834.837341 127 125 122
592.805958 2115.634918 2933.449364 87 83 80
557.499123 -203.448892 3506.834030 95 112 133
765.419006 1245.510483 3679.747391 169 168 169
486.747026 2151.464844 2617.271423 103 105 102
586.901808 2205.119324 2882.323265 87 84 76
711.096811 374.597955 3768.554688 148 148 141
723.385286 953.072643 3623.714066 73 85 88
618.875122 2079.953575 2988.915253 158 155 155
776.210546 903.965378 3767.927933 155 151 145
693.138695 245.716429 3704.357147 37 44 42
725.495195 304.034090 3776.707077 108 113 111
759.040689 1203.102207 3612.487793 155 157 157
587.309980 -27.681839 3472.738266 103 118 125
581.415510 -271.154261 3524.706268 145 135 129
589.787245 -174.337292 3520.242691 148 157 170
593.155289 -541.259670 3632.890320 187 188 187
596.303415 -492.511654 3614.772034 64 58 49
792.413521 699.513435 3797.523117 141 139 138
607.122040 -570.364761 3640.177917 131 123 117
733.614826 1623.949051 3365.370178 115 112 112
596.590185 -93.832088 3467.747498 43 49 52
819.839191 808.272076 3828.957367 54 49 43
766.710138 1235.513687 3556.354141 115 115 116
761.100578 1280.612946 3527.564240 119 117 116
614.145470 -495.290470 3613.840485 86 85 78
782.589054 726.712227 3730.264664 148 141 135
645.651293 2111.801147 2960.076714 170 164 149
762.197065 1012.141991 3566.301346 79 87 91
631.649208 -471.866274 3612.755203 84 81 72
730.494356 208.263445 3690.098190 25 30 28
622.407007 -328.068542 3534.305573 154 140 128
620.951939 -270.885873 3499.003220 172 166 161
751.791239 855.338287 3522.078705 50 47 46
816.287327 663.964796 3742.547226 132 130 126
547.158909 2108.776665 2624.983025 137 128 129
